# 3D point list with one line of data per point:
#   POINT3D_ID, X, Y, Z, R, G, B, ERROR, TRACK[] as (IMAGE_ID, POINT2D_IDX)
# Number of points: 156, mean track length: 6.4294871794871797
65 1.17538491319611 -0.02753835495857937 -0.90218165682863594 68 68 68 1.0038914787913762 18 15 8 24 15 20 14 16
1 1.5229785068760664 -0.33516706338658053 2.4897428752271056 55 55 55 0.43072585910249211 2 1 9 0 21 0 4 1 10 1 26 3
67 0.89541915249768078 -0.10928221486669371 -0.7236173737596473 185 185 185 1.4696948043000255 18 17 8 26 15 22 14 18
3 0.11520408243719231 -0.01245466851584935 0.5208646882002419 44 44 44 1.1733379029309647 2 6 12 6 18 1 4 6 10 6 5 2
68 0.91923159261989251 -0.19336464179781385 -1.0155710988580522 73 73 73 0.94043482777960941 18 18 8 27 15 23 14 19
4 0.61955681022639553 -0.5998311483235681 1.5621929710523066 226 226 226 1.2575292018227118 18 5 13 7 19 5 12 10 25 4 26 10 27 9
70 2.703005847455684 0.17558405253915621 1.0401073741051108 190 190 190 1.2488685488033404 12 25 15 17 8 21 14 13
6 -0.026156000455399345 -0.2411737067385982 0.64619326146995948 157 157 157 1.1821527209305618 2 13 9 10 4 13 5 10 3 9 7 10
8 -0.27867444566744126 -1.2052445817705308 0.82505761088128726 49 49 49 1.1470777455078074 2 15 18 10 13 13 20 12 17 12 9 15 12 16 8 11 15 11 21 13 14 7 4 18 5 12 19 10 1 10 3 11 11 9
74 0.96158154428203346 -0.53982692643734753 1.6303523879487558 0 0 0 0.7685943613116708 8 15 17 14
11 -0.87507677793203742 -0.80445050645489724 2.0857025371366462 173 173 173 1.5849862729068014 2 26 13 18 4 30 12 21 10 24 1 20 11 18 7 17
76 2.7754905805393517 0.17171454794465624 0.95955185028455392 54 54 54 0.97267096110135165 8 19 15 15 14 11
12 -2.4684806640003876 -0.81236870271094275 1.0060627624767728 66 66 66 0.39537437879643283 2 32 12 28 10 25
77 2.7186230344053186 0.16772448747013916 0.90627388560969913 131 131 131 0.58373624645764588 8 20 15 16 14 12
13 0.16319918234026881 -0.45390663740511084 0.91624901315333374 26 26 26 1.5156263326104924 2 34 12 29 18 20 13 19 20 17 17 22 9 30 8 29 15 25 21 22 31 18 30 18 4 34 10 26 5 20 19 15
14 0.28074449681522362 -0.41131490914242785 1.0049252328040235 56 56 56 1.7437223223910328 2 35 12 30 18 21 13 20 20 18 17 23 9 31 8 30 15 26 21 23 14 22 31 19 30 19 4 35 10 27 5 21 19 16
15 0.39609997686971504 -0.34939011083025262 1.0950185955586762 38 38 38 1.6188006726752981 2 36 12 31 18 22 13 21 20 19 17 24 9 32 8 31 21 24 31 20 30 20 4 36 10 28 5 22 19 17
16 0.63387547458936855 -0.39367344910427909 1.2809907167774932 69 69 69 1.1459626306374846 2 38 12 32 18 24 13 23 20 21 17 26 9 34 8 33 15 29 21 26 14 25 31 22 30 22 4 38 5 24 19 19
17 0.75056163049400437 -0.32927826532384002 1.3757087672685691 56 56 56 1.1446935971935732 12 33 18 25 13 24 20 22 17 27 9 35 2 39 8 34 15 30 21 27 14 26 31 23 30 23 4 39 5 25
18 0.36243284058676972 -0.049721173622126247 0.63327222364104729 113 113 113 1.008958856553511 2 40 12 34 18 26 13 25 20 23 9 36 8 35 15 31 4 40 10 30 5 26
19 0.47894677716266065 0.062269706405142317 0.71857184052748024 212 212 212 1.4281644177156712 2 41 12 35 18 27 13 26 20 24 9 37 8 36 15 32 31 24 30 24 4 41 10 31 5 27
20 0.5382428692934772 -0.22356758506957439 0.77645661463581572 129 129 129 2.5550475752540018 2 42 12 36 18 28 13 27 20 25 17 30 9 38 8 37 15 33 21 28 31 25 30 25 4 42 10 32 5 28 19 21
21 0.71568740430690192 -0.030235510520786747 0.90239489113662519 145 145 145 1.3225526896579629 2 43 12 37 18 29 13 28 20 26 17 31 8 38 15 34 21 29 14 29 31 26 30 26 4 43 5 29 19 22
22 0.83819279725100071 0.086260455302379233 0.98827137673100252 159 159 159 1.4659968698008521 2 44 18 30 12 38 17 32 8 39 15 35 13 29 21 30 14 30 31 27 30 27 19 23
23 1.0458529065239641 -0.010637510777979503 1.1577269122337126 121 121 121 1.4645136570632313 2 46 12 39 18 31 13 30 20 28 17 33 9 40 8 41 15 36 21 32 14 31 31 29 30 29 4 45 19 24
24 -0.21147775189496631 -0.30639912648491047 0.64363896914404872 195 195 195 1.8537157594532245 2 51 18 32 13 31 10 42
25 -1.6786173102654507 0.10138093147482792 -0.33197626692162358 56 56 56 1.2798658076539051 18 0 3 0 12 0 11 0 29 0
27 -0.33768181105712142 -1.5159710932742669 0.85268956406072327 235 235 235 2.0813083384099738 12 8 18 3 13 5 9 8 27 5 28 4
29 0.02449202588047359 -0.62905852135891449 1.1062620735191999 212 212 212 0.6405424391927671 12 11 25 5
30 -0.35280437576983059 -1.1959705211000249 0.9254098252000752 136 136 136 1.045482131974812 18 9 13 12 20 11 17 11 9 14 12 15 8 10 15 10 21 12 14 6 31 10 30 10 19 9 32 11 16 11 33 9 6 10 7 13
31 0.097030624022159936 -0.62202679650767845 0.87023372960214407 64 64 64 1.3882358017173393 2 19 18 13 13 17 20 16 17 16 9 20 8 17 21 17 14 10 4 22 10 17 5 15 19 14 1 13 3 15 11 12
32 0.5169893121318867 -0.4335885456391238 1.1899390055125278 21 21 21 1.3621723029811419 2 37 18 23 13 22 20 20 17 25 9 33 8 32 15 28 21 25 31 21 30 21 4 37 10 29 5 23 19 18
33 1.2035112570651658 0.058664092014834301 1.452545712554727 22 22 22 1.1095911813929979 12 3 13 1 20 0 17 0 9 4 8 0 15 0 21 2 31 0 30 0 19 0
34 1.1244045306769992 0.047634808545869392 1.2997393203034833 21 21 21 0.75126481882621765 12 4 13 2 20 1 17 1 9 5 8 1 15 1 21 3 14 0 31 1 30 1
35 1.1448125471301271 0.068518235597204838 1.6030144396965502 25 25 25 1.5356273976947565 12 5 13 3 20 2 17 2 8 2 15 2 31 2 30 2 19 2
36 1.0455315426325757 -0.15961838296961564 1.4832195884074688 201 201 201 0.23910424198364472 12 12 13 8 15 7 19 6
37 -0.36975857585247945 -1.4817785024603143 0.85362628915869432 224 224 224 1.4758922150444758 2 14 13 11 20 10 18 8 12 14 8 9 15 9 21 11 14 5 31 9 30 9 5 11 19 8 1 9 3 10 32 10 16 10 33 8 6 9 11 8 7 12
39 0.26369624869367475 0.16523942888543253 0.54840568571674297 20 20 20 2.5751451629770723 12 9 13 6 20 5 18 4 15 5
40 -0.21261096777541275 -0.49909252016970579 0.63629341781517845 141 141 141 1.7157704177706743 13 9 20 8 17 8 9 11 8 7 15 8 21 9 14 4 31 7 30 7 4 15 10 11 19 7 1 8 6 7
41 1.1738238482266223 -0.14909688408950397 1.8878678031163025 244 244 244 1.1947652440360721 13 10 20 9 17 9 8 8 9 12 21 10 30 8
42 0.61127967160607366 -0.56751821691659377 1.5607907144145079 194 194 194 1.0257431162963266 2 11 20 6 8 5 21 7 31 5 30 5 6 4 7 7
43 2.8548041978014194 0.13948286601780924 0.91616004332552403 100 100 100 0.38774461439593805 12 23 17 17 9 26
44 2.7987579873413289 0.13820925936633885 0.86290417517778573 117 117 117 1.7962340185004655 12 24 17 18 9 27
47 -0.34790290581375144 -0.30191205693823586 2.2532769994448869 155 155 155 1.0607065566263001 2 4 9 2 4 3 10 3 1 1 3 1 11 2
51 -0.62445469051823022 -0.35400643260817738 2.010377093691627 146 146 146 1.4527275353489351 2 24 9 22 4 28 10 22 1 18 3 18
53 0.55736086256466555 -0.38169222172981521 2.4610288106743101 52 52 52 1.7635696517847073 12 22 9 24 31 16 30 16 21 19
55 0.92235142363915934 -0.21754997896299819 1.1353595441122786 56 56 56 1.8850058919026693 2 45 9 39 8 40 4 44 5 30
56 -0.18301145898418941 -0.24651881655401545 0.55191879327302229 109 109 109 1.7522138947224071 2 49 9 41 31 30 30 30 10 38 5 31 1 24 22 25 23 25 7 27
57 1.7500881979012937 -0.57551891601053273 2.5583208886812394 30 30 30 1.7176822433118 12 2 9 1 21 1 22 0 23 0 27 1 26 4 7 1 2 2
58 2.681722941450948 0.049439178608734223 1.0144351813074275 51 51 51 1.4054796885838661 12 26 15 18 8 22 14 14
59 -0.37313088970697661 -1.5415542870648151 0.85681252492392523 208 208 208 1.6574836561603055 17 4 20 4 8 4 15 4 21 6 14 2 31 4 30 4 4 8 5 4 19 4 3 5 32 2 16 3 11 6 6 3 7 4 29 7
61 1.0617200330190617 -0.17727971775453205 1.4842538934145866 229 229 229 1.034481019960694 9 9 20 7 8 6 21 8 31 6 30 6
63 0.77687092699265636 -0.59902842706251702 1.4504129419515712 83 83 83 0.95028436253098214 9 17 8 13
69 0.60917444106669183 -0.18592149400606095 -0.86178387809869517 141 141 141 1.2142718805903916 18 19 8 28 15 24 14 20
71 0.54244647101585952 -0.015203101528201658 -0.63199689991093588 132 132 132 1.9219964567417527 18 16 15 21 14 17
81 0.22495143351798011 -0.24848145594825763 0.53900335842958924 80 80 80 1.3550894752432696 2 18 12 20 13 16 20 15 9 19 8 16 15 14 17 15 21 16 31 14 30 14 4 21 10 16 5 14
82 2.7189558530191769 0.039653948433901805 0.99069909286570756 196 196 196 1.3054487635621019 8 23 15 19 14 15
83 0.65555712360430896 -0.59730427175202716 1.5684742196654244 0 0 0 0.061131234303574977 15 6 17 6
85 2.7236872387564297 0.13942125488728718 0.99892467307904365 0 0 0 1.9562605888681872 9 28 17 19
88 2.7684323516254721 0.0064153464582632786 0.98762179516117676 0 0 0 0.48470052910715411 17 20 21 21
89 1.2237689848569708 0.077207329843013262 1.6008774518835414 0 0 0 0.13799762538597254 9 6 21 4
90 1.0806099739813351 -0.12625006537054559 1.2179049601246663 0 0 0 1.8118635327701755 14 1 18 2
94 0.57405117865477617 0.068379488924620827 0.73210604785457523 0 0 0 1.7515090392136343 14 27 17 29
100 0.93431561660003493 -0.21906655190474647 1.0540374527407037 181 160 122 0.71544073009717291 21 31 31 28 30 28
101 0.53802906209368995 -1.6588106064330019 2.6329080883438012 142 124 87 1.2099971590332779 30 17 4 33 5 19
102 1.112443204567745 -0.12650128406268207 1.2147908752383825 24 24 24 2.2579759474066852 12 7 13 4 20 3 17 3 9 7 8 3 15 3 30 3 21 5 31 3 19 3
103 -0.98234444436316559 0.10253972030777588 -0.11656984639869362 48 48 48 1.4512087208279629 2 0 4 0
104 -1.2629276532907781 -0.29126513188850622 2.0861329173021113 172 172 172 1.000862682604303 2 3 4 2 10 2 1 0 11 1
105 -0.44347135744510618 -0.35768033913939878 0.71590754273301305 116 116 116 1.3832876139504282 2 5 4 4 10 4 5 1 1 3 3 3 27 3 22 2 28 2 26 5 33 0 6 1 11 3 7 2
106 -0.5168434238469608 -0.41293880819706913 0.93959457741352659 143 143 143 1.3827819196399818 2 7 4 7 3 4 11 5
107 -0.45048259831273907 0.073070889787834742 0.80310894607299887 35 35 35 0.61267842866156952 2 8 4 9 10 8
108 -0.41793029894178746 0.067095317736732843 0.73100372603811237 188 188 188 0.5155967530613953 2 9 4 10 10 9
109 -0.090371456538655359 -0.61819596438230529 0.89078882844137841 94 94 94 0.90716306979952577 2 10 4 11 10 10 5 7 1 6 3 7 11 7
110 -0.24258907720955666 -1.4380098243626782 0.86264555990717728 0 0 0 3.2721661379436027 9 13 17 10
111 -0.45690606435973152 -1.2050654360447306 0.84618758215416057 92 92 92 1.2690577029483823 2 16 4 19 5 13 1 11 3 12 32 12 33 10 11 10
113 -1.1512715862776191 -0.35324728019981488 2.1161981321063492 88 88 88 1.055957843434798 2 20 4 23 10 18 1 14 11 13
114 -1.1464070271769471 -0.24479874672945229 1.9644264791699784 156 156 156 1.2406290157952196 2 21 4 25 10 19 1 15 11 14
115 -0.90004976129092962 0.0113121865861061 1.882324397141607 78 78 78 1.2817070007784195 2 22 4 26 10 20 3 16 11 15
116 -0.72399977727615494 -0.39861761987695166 1.9754373153188463 134 134 134 0.73930234925302774 2 23 4 27 10 21 1 17 3 17 11 16
117 -0.65342399183262057 -0.2573472057055482 1.839741616831936 72 72 72 1.700224623018417 2 25 4 29 1 19 3 19 11 17
120 0.46913063829399143 -0.73665082824788874 2.3793455463995752 54 54 54 1.0888637997248154 2 28 4 32 5 18 3 22 6 15 7 19
121 -0.41911532142934249 -0.86837845156137039 0.7749811266627078 156 156 156 1.0626313638202969 4 5 10 5 1 4 16 1 11 4
125 -0.51074640278674022 -0.03656517489593273 0.75613415631724323 100 100 100 1.044504644830659 2 47 10 34 1 23 27 33 22 21 23 21 32 29 16 23 28 32 26 35 33 22 25 24 24 18
127 -0.47269765361646637 0.030104076612447628 1.0773519469091137 114 114 114 0.036851524428933607 4 46 10 36
128 -0.17573370002251001 -0.0094052881432583925 0.5928650324981285 52 52 52 1.2935037449998859 4 47 10 37 22 24 23 24
130 0.030553792044518063 -0.5949370313010387 1.1130288801434558 153 153 153 0.68757629474488513 2 12 4 12 5 9 6 5 7 8
131 -0.025169398186084463 -0.22481811177904829 0.64260563154376626 0 0 0 0.10587660598347631 12 13 18 7
132 -0.39714685693613344 -1.4499785930845064 0.6903488284743291 0 0 0 0.98982426406399227 4 17 10 12
135 -7.1393954840604614 -1.3668712940510954 3.6461399308737845 157 157 157 0.84829963763643412 21 18 31 15 5 16
136 0.36621214838934463 -0.72939347960243106 2.4588427064574074 52 52 52 2.1117144951492639 3 21 2 27 5 17 6 14 7 18
137 0.52981753225676864 -1.6286132020484605 2.6116048177908922 140 140 140 0.616565603985754 2 29 3 23 27 20 33 12 6 16 9 25 7 20
144 0.83343189619740266 -0.57108899187143747 1.6299264739777264 107 99 84 1.3682374907302099 13 15 9 18 12 19 21 15 19 12 15 13 31 13 30 13
266 -1.0757949170929624 0.075989831653698534 -0.37573354670502745 60 60 60 1.7367036741607302 26 0 29 1
145 0.089447591063925969 -0.280593705874569 2.3019902197393245 82 83 78 1.3233214094930639 9 3 13 0 1 2 3 2 22 1 23 1
146 -0.44749821407461715 -0.10829626330471973 0.69683200740376294 68 75 68 0.84396653002877109 4 14 1 7 27 13 22 8 23 7 32 8 16 8 28 11 33 6
264 -0.4879591050216448 -0.37717548743221102 0.76107628252097848 0 0 0 0.084444983522976164 6 24 26 33
151 -0.51579878567730464 -0.097780321178449231 0.72689143480985241 45 50 50 1.3550069150823612 1 27 22 28 27 38 23 28 32 35 16 30 28 37 33 26
152 -0.37928227593997726 -1.2071406328092429 0.74795431394423373 100 100 100 1.4122168413490537 2 17 1 12 18 11 13 14 20 13 17 13 9 16 12 17 8 12 15 12 21 14 14 8 31 12 30 12 4 20 19 11 32 13 16 13 33 11 6 12 11 11 7 15
274 -0.021427937926484057 -0.25798271971566245 0.52304662645013633 119 119 119 2.1625161698583284 6 8 29 11 7 11
153 -0.52172716420905918 -0.4150484535248089 0.87871545927397365 35 35 35 0.790451055722172 27 4 22 3 23 2 32 1 28 3 26 6 33 1 25 1 24 1 7 3
278 -0.59008385815944164 -0.080387398090784629 1.0899969260120856 0 0 0 0.92421913812025369 16 17 29 19
157 -0.51736760661207537 -0.42379041783763272 0.75098274684997257 72 72 72 1.396866827173362 1 25 3 27 27 36 22 26 23 26 28 35 26 38 32 33 33 24 6 27 7 28 11 21
272 -0.30786563570143416 -0.18608092114745245 0.98681154809578009 56 56 56 2.1301670515878088 25 13 29 18
159 -0.48074560217785178 0.061067647682461965 0.70923382145852609 15 15 15 1.3245251310755344 27 7 22 5 23 4 32 4 16 5 28 6 26 8 33 3
160 -0.43815944768953252 0.058307212635071284 0.66052493714163474 22 22 22 1.4529815104084591 27 8 22 6 23 5 32 5 16 6 28 7 26 9 33 4
164 -0.9077933667229805 -0.80433627123842755 2.0489600004466557 105 105 105 0.83681741344097549 3 20 27 18
165 -0.47940393852591012 -0.4606429780410517 0.99637932605085622 139 139 139 1.6775287093749529 3 24 27 28 22 17 23 17 28 23 26 26 25 15 29 20 24 10 7 22
166 -0.55178283789889693 -0.21365191347394316 1.0199524601666743 47 47 47 1.6152048249719968 3 25 27 29 22 18 23 18 32 22 28 24 26 27 33 19 25 16 24 11 7 23
167 -0.51219066930177992 -0.37491674944469 0.77713038857740668 37 37 37 1.0893575883734654 1 21 27 31 22 19 23 19 32 27 28 30 33 21 25 22 7 25
168 -0.45792879854083779 -0.2486229522715796 0.95706781295348609 103 103 103 1.1397129889354651 27 6 22 4 23 3 16 4 28 5 26 7 25 2
169 -0.54055693171563424 0.031404458939297476 1.1273146329484354 62 62 62 1.5682353906017603 22 7 23 6 32 7 28 10 26 13 33 5 25 7 27 12 24 3
171 -0.56924849112818932 -0.069682994715404303 1.1810196340698043 63 63 63 1.3621592050194249 27 22 22 13 23 12 32 16 28 15 26 18 33 13 25 9 16 14 29 15 24 7
172 -0.61912936971034971 0.20301817205509431 0.62976482797925881 91 91 91 1.368904613239772 27 23 22 14 23 13 32 17 16 15 26 19 33 14 29 16
173 -0.55046294657251349 0.19646983392574058 0.53414666829398338 84 84 84 1.4728359355814689 27 24 22 15 23 14 32 18 16 16 26 20 33 15 29 17
174 -0.58087601428639779 -0.074977555197379434 1.0886283528050815 83 83 83 1.3043604885477236 27 25 22 16 23 15 32 19 28 20 26 23 33 16 25 14 24 9
288 4.1837465600339252 -0.11890300845824402 0.68206661030883708 71 71 71 0.67732712143586948 23 16 7 21 6 19
175 -0.48774737050782369 0.018343265248525 0.9742219254254314 30 30 30 1.8103038030187322 27 35 22 23 23 23 32 31 16 25 28 34 26 37 33 23
181 0.42406686473372668 -1.6681946678893165 2.6638585220614561 0 0 0 1.1535818493660561 23 11 31 17
183 2.877218118301458 -0.18358997597994312 -0.32027533074447861 191 174 152 1.2718982590477916 27 26 28 21 26 24 6 17
184 3.704925148937666 -0.67837740275614555 -0.1875186506123262 190 182 166 1.1575612874285313 27 27 16 19 28 22 26 25 33 17 6 18
185 -0.15609015810133364 -0.60960043332393532 1.0302807965527676 181 169 147 1.1022187433962012 27 30 16 20 26 28
188 -0.43134560790393289 -0.10418468028527525 0.6231675834104301 55 55 55 1.5088104606332178 23 29 27 39 2 50 32 36 28 38 26 41 33 27
193 -0.43880774764504238 -0.10088904336743615 0.60967956934587686 50 50 50 1.4060211344664504 10 41 22 29 16 31
196 -0.38742436356516524 -0.18188635078874085 1.1235735819996839 120 120 120 2.3477815613880724 27 11 28 9 26 12 25 6 29 9
197 0.63136771212117071 -0.07789272826708396 -0.68502382536865003 169 169 169 1.1579903370528881 28 28 26 31 25 20 29 25 24 15
200 -0.40565765722624431 -0.046551127258714263 0.61621487337438585 67 67 67 1.526019911570502 2 48 10 35 32 30 16 24 28 33 23 22 27 34 26 36 25 25
201 1.5068911202137552 -0.34468111920573752 2.4867196431909764 0 0 0 1.7150008424381147 12 1 27 0
202 -0.40400787458488552 -0.38334789495712729 0.63614108377229317 28 32 34 1.9997569484476656 16 22 27 32 32 28 28 31 10 33 1 22 22 20 23 20 26 34 25 23 11 19 7 26
203 -0.43232422109133967 -0.43037475451057883 0.64079025068117257 79 80 77 1.126727571625469 10 39 1 26 3 28 27 37 32 34 28 36 26 39 33 25 25 27 11 22
204 -0.58047827827832965 0.36620603506470589 0.51240628909309327 93 93 93 0.57293773102278689 28 0 26 1
205 -0.57152208319597286 0.35748836950787866 0.47838288624169323 117 117 117 0.92769457019196233 28 1 26 2
210 0.69923918739221236 -0.012187509604568911 -0.50114635272788699 153 153 153 0.70200307493036052 28 18 26 21 25 10
211 0.7721734753487296 -0.16951644672311544 -0.68876606593351275 167 167 167 0.46157441493116319 28 19 26 22 25 12 24 8
212 0.67562614676573263 -0.070279122426722324 -0.60189780008823013 170 170 170 0.84931604501458513 28 26 26 29 25 18 29 23 24 13
213 0.65378524280644557 -0.073727656939880301 -0.64391794210741105 168 168 168 0.51807383243689042 28 27 26 30 25 19 29 24 24 14
220 -0.37065588217959505 -0.44509581318578134 0.64807567903359875 0 0 0 1.7769666220781961 16 29 23 27
221 -0.49961349469207661 -0.088365957844412438 0.73781035053265276 0 0 0 0.65901034962370852 10 40 26 40
224 -0.46445679201525725 -0.25459063649960662 0.95479263596433461 55 55 55 1.9182558722859748 3 6 33 2 7 5 29 8
234 -0.17135684139534801 -0.2461847331696122 0.54344459653717248 0 0 0 0.93617233600313832 3 26 6 26 16 27
235 -0.18989639110350029 -0.60659719443989146 1.0336962905189484 179 179 179 0.63861262651601203 33 20 6 20 29 22 7 24
238 -0.54260167581083896 -0.19334165106171972 1.20888625637143 171 164 157 2.0624947073267013 16 9 33 7 25 8 27 14 23 8 32 9 28 12 26 15 29 10 24 4
242 0.061098666115353757 -0.62950821012798863 1.1017908689781104 0 0 0 1.3266227635719432 18 6 26 11 27 10
247 0.55795418673366748 -0.55961824047208919 1.8017660560694284 164 164 164 1.6931714601350158 8 14 6 13 7 16
249 -0.20812227488927496 -0.61092472167605327 1.0371911053471845 191 191 191 1.1959585763936353 25 17 28 25 24 12
250 1.0529198926306729 -0.12657994388530583 -0.68409526885047067 133 133 133 0.81124562739137573 32 24 6 21
251 1.432781547712112 -0.15905896725374616 -0.6733318859109324 128 128 128 0.46466533973830498 32 25 6 22
252 1.2700542940605823 -0.17331421922260801 -0.88949130282012578 133 133 133 0.082978405225268892 32 26 6 23
261 -0.66421498761148212 -0.24287225486334357 1.8255828860142831 0 0 0 0.74713209122213831 10 23 22 11 23 10
267 -0.33533091366807849 -0.40862174327658823 0.9604786608496525 42 42 42 0.79135195303653738 25 0 29 5 24 0
269 -0.39971963486189771 -0.2036409196023084 1.1248202015733628 166 166 166 0.86066879821629383 3 8 6 6 7 9
271 -0.41249967698660533 -1.4371137794571005 0.85153550577431858 0 0 0 0.67533022801359099 27 15 28 13
275 -0.23334466636818035 -0.31899570363495927 0.90046502715258447 52 52 52 0.50238823806737309 25 21 24 16
276 -0.53612209089186846 -0.41408704108731426 0.88149531145999227 0 0 0 1.7543444556352501 16 2 29 6 5 3
277 -0.41275832847306421 0.2285485974973071 1.4014890905931203 20 20 20 0.62920857795451468 26 17 27 21 24 6
282 -0.4422256250289972 0.06531550292300857 0.67743464104086193 0 0 0 1.6594088457052933 5 6 25 3
284 -0.43962322738061688 -1.2200167733137959 0.85580427140349791 0 0 0 1.7365491303624188 10 14 16 12
