# 3D point list with one line of data per point:
#   POINT3D_ID, X, Y, Z, R, G, B, ERROR, TRACK[] as (IMAGE_ID, POINT2D_IDX)
# Number of points: 47, mean track length: 6.9148936170212769
129 1.8454265887000327 0.62094128600489074 0.91132015086122542 0 0 0 0.015547706000817479 16 26 17 25
65 2.4865733071283436 0.45973980330279351 1.0968733594111055 94 94 94 0.39214470785380279 4 19 14 20 13 19 1 18 8 17
3 3.3011261537717038 -0.97195228156425317 1.7258256815440922 44 44 44 1.1287983827677595 16 2 9 2 4 2 6 3 12 2 7 2 17 2 5 2 3 2 14 2 13 2 18 2 19 2 2 3 1 2 11 1 20 3
4 2.8688764560785565 -0.97547975760617711 2.205843683984317 49 49 49 1.0402570087284138 16 3 4 3 6 4 17 3 5 3 12 3 3 3 13 3 18 3 19 3 2 4 1 3 15 3 10 2
5 3.2206819404639146 -0.85560720983257255 1.9012790710390568 42 42 42 1.0469666856949487 16 5 20 6 9 5 4 5 6 6 12 5 7 5 17 5 5 5 15 5 3 5 14 5 13 5 18 5 19 5 2 6 1 5 11 4 10 4
137 3.6015359469280122 -2.6381376807502526 2.2729740920305441 185 185 185 0.62598301987847604 9 15 11 12
9 3.867815105328996 -1.6958511724069341 2.6815528924821299 31 31 31 0.77273439031204016 16 9 20 10 9 9
138 -1.0650377195490919 -2.8652191716549571 8.939132591139197 117 117 117 0.03945060632234914 1 14 11 13
10 3.3431921639205351 -2.646759804651877 2.2746839888033392 127 127 127 1.4041864674220041 20 11 9 10 4 10 6 11 7 9 17 9 12 9 5 10 15 10 3 10 14 9 13 10 19 10 18 10 2 10 1 9 11 8 10 8
11 3.4227154604140302 -2.6453791116130216 2.1882293725602282 70 70 70 1.2067348441847141 16 11 20 12 9 11 6 12 12 10 7 10 17 10 5 11 3 11 14 10 13 11 18 11 19 11 2 11 4 11 1 10 11 9 10 9
12 3.5128418862987623 -2.6593726406341571 2.1963290166632481 58 58 58 1.6657591838816443 16 12 20 13 9 12 6 13 7 11 17 11 5 12 12 11 14 11 2 12 1 11 11 10
83 2.8581086908415334 -0.98047661712057355 2.1969908640866898 0 0 0 0.21465820888857315 9 3 14 3
19 3.3053156066417877 -0.85126457850775394 1.7365226207067503 115 115 115 1.2482187477938469 16 6 9 6 4 6 6 7 12 6 7 6 17 6 5 6 3 6 14 6 18 6 19 6 2 7 1 6 11 5 15 6 10 5
84 3.3539677205947491 -0.86880818719905528 1.7644962656161756 0 0 0 0.2022478821296102 13 6 20 7
20 2.8707712291046312 -0.8566033916251653 2.2095552370552261 50 50 50 1.3412410122231542 16 7 17 7 4 7 7 7 12 7 5 7 6 8 9 7 3 7 14 7 13 7 18 7 19 7 2 8 1 7 11 6 15 7 10 6
85 3.3340337184636399 -2.6418490461201878 2.3752224366261636 0 0 0 0.01891584594449397 13 12 14 12
21 3.1644959455534138 -1.6037632305892804 2.0371368799754341 26 26 26 1.7432767210015581 16 8 6 9 20 9 12 8 7 8 17 8 9 8 3 8 14 8 13 8 18 8 19 8 5 8 11 7 15 8 10 7
24 3.6300585752708794 -0.40515998525857505 1.1796772265223416 32 32 32 1.238260333146278 9 16 4 18 17 15 5 17 15 17 2 16 3 16 11 15 10 14
90 4.4689409569471259 -1.2698859368731006 -1.7373638240408413 62 62 62 0.59908854188051741 15 22 17 17 18 19 19 19
26 2.9462863715372278 -0.56469010679656062 1.8109755431399077 24 24 24 1.3507680619096725 20 2 6 2
27 3.3500351068750298 -2.6534475098838826 2.3495724512619445 151 151 151 1.3947669049155615 4 13 9 13 16 13 20 14 6 14 12 12 7 12 5 13 3 12 15 13 18 12 19 12 2 13 1 12 10 10
29 2.9092189980481087 -0.26261300673426025 1.7939568256859328 69 69 69 0.87087516203693882 20 19 6 17
30 2.8093913524933187 -0.20285500287408506 1.8193850691522706 62 62 62 0.81795883204665454 20 22 6 18
31 2.9361463783469954 -0.2030015557793986 1.6951727550130575 48 48 48 0.16498500910167344 20 23 6 19
96 3.4071622107130604 -2.6527886615984286 2.4497049564604505 0 0 0 0.69299021268542027 13 13 14 13
32 3.6033597560222126 -2.6862840516606714 2.2825935890918334 100 100 100 0.93544238291555182 20 15 7 13 17 12 9 14 16 14
33 3.628450097665846 -0.38133161332466087 1.1484133499334856 132 132 132 1.1427494879760294 6 16 12 15 7 15 13 15
101 3.8289859823568517 -1.670009693939716 2.6589064214769622 80 75 65 0.93476067540897367 4 9 18 9 19 9 6 10
37 3.2131001200294644 -0.77432601247250832 2.0858128245821415 0 0 0 1.1508643239759082 6 1 12 1
41 2.8633627701988367 -0.97484536507900887 2.2274664978524075 0 0 0 0.12717165333353431 7 3 20 4
53 3.5038734497098876 -2.6591514933768998 2.4245574248809305 106 106 106 1.652311892066793 5 14 15 14 3 13 18 13 19 13 10 11
54 3.4253788108103915 -2.6613257101130219 2.4242822422472585 72 72 72 1.07425402397415 5 15 15 15 20 16 3 14 18 14 19 14 2 15 10 12
57 3.1933570259674156 -0.76187420932425531 2.0703255498839548 27 27 27 1.4827527008091779 16 1 9 1 4 1 17 1 7 1 20 1 5 1 3 1 14 1 13 1 18 1 19 1 2 1 1 1
123 0.91825757059911761 -3.3030840615259209 11.593997424290167 68 68 68 0.10884949701890914 4 16 1 13
59 3.0329164967989808 -0.86109098144571761 2.1058102037655853 71 71 71 0.85649101703176644 4 4 5 4 6 5 7 4 9 4 12 4 15 4 16 4 17 4 3 4 14 4 13 4 18 4 19 4 2 5 1 4 11 3 10 3
128 3.4513498723745695 -3.3778147209427778 2.2920881945456779 198 198 192 1.0423567442170281 2 0 1 0 16 0 20 0 9 0 6 0 5 0 7 0 13 0 19 0 18 0 11 0
64 4.6726801501595459 -1.6461114698752064 -0.50553465248483742 0 0 0 0.346943793334206 15 20 17 16
71 9.5622414021501498 -2.699855720634301 -2.2770385249714304 52 65 99 0.24862180340377252 3 17 14 16 13 16 10 15
136 3.5774143841067603 -2.6665401601011269 2.2685039265698985 112 112 112 0.84954794211647944 2 14 4 14 11 11
72 11.282623158253932 -2.8586810592136418 -0.27335046514764516 109 125 131 0.77759720765360119 3 18 5 18 15 19 14 17 18 17 19 17
80 2.3414821694978643 0.43923501527085118 1.540282644779553 0 0 0 0.8734373400769998 3 20 5 19 14 19
98 5.0548234373494507 -1.5439960066523137 -0.17929093076855801 175 170 151 1.8268005031259975 15 18 18 16 19 16
99 5.1453520444115837 -1.4917258989843758 -1.4422719311086605 86 77 60 0.28954470007921124 15 21 18 18 19 18
107 2.5870175176413572 0.50231161807240621 1.3001986655461131 0 0 0 0.17982894769000027 7 18 12 19
111 3.0529034678289313 -0.86970560548755782 2.1473758802387835 0 0 0 1.3088113941037282e-06 8 6 20 8
130 3.4404288892257067 -3.3459705732292626 2.2930916373640078 0 0 0 0.99273263055747674 3 0 14 0 17 0 15 0
142 2.3966090882787792 -0.40674745628238568 2.7161049150435588 81 81 81 1.3924956990353385 4 17 6 15 12 14 5 16 19 15 3 15 7 14 13 14 18 15
