# 3D point list with one line of data per point:
#   POINT3D_ID, X, Y, Z, R, G, B, ERROR, TRACK[] as (IMAGE_ID, POINT2D_IDX)
# Number of points: 64, mean track length: 7.328125
65 -2.3437854211756144 -0.50710689644964668 7.1861016662069943 183 183 183 1.5864643022473262 2 17 3 16 8 13 17 13
1 0.46709601288453323 0.2508480318070474 4.8671800450592739 93 93 93 1.0160999231456809 2 0 20 0 15 0 3 0 14 0 19 0 4 0 13 0 8 0 10 0 9 0 5 0 1 0 17 0 6 0
130 0.64140122261925436 -0.91610484463269659 6.7322775595645883 44 44 44 1.5980662748606103 2 3 20 3 15 3 3 3 14 3 4 3 13 3 11 3 10 3 9 3 5 3 19 3 18 2 1 3 17 3 16 3
66 2.6220758180469605 -0.88014463860867165 6.9645967399983899 239 239 239 1.6260910401880722 4 16 14 15 9 12
2 1.268552632558297 -1.1366143798752282 6.3911435725764818 96 96 96 0.91333825761446008 2 1 20 1 15 1 3 1 14 1 19 1 4 1 13 1 8 1 11 1 10 1 9 1 5 1 17 1 6 1 18 0 16 1
131 0.42945519816719541 0.26543429559771586 5.075418497776063 0 0 0 1.3566183000201368 2 28 4 25 11 23 19 22
3 1.9027207125520407 -0.89064397083782865 6.0797394624405108 49 49 49 1.304278000604201 2 2 20 2 15 2 3 2 14 2 19 2 4 2 13 2 8 2 11 2 10 2 9 2 5 2 17 2 18 1 1 2 16 2 7 0
6 -0.45497446291246929 0.14482569670159326 6.0431652208674018 52 52 52 1.695534960410122 20 5 15 5 3 6 19 6 8 5 2 6 11 5 17 5 12 1
71 1.6165252857122241 -0.55576069631979652 6.0546186413324339 56 56 56 1.7463382997988042 2 11 3 10 5 8
72 -0.049127625614757031 0.049823112057245302 3.3831120217892288 0 0 0 1.0328769501619957 4 18 15 14
8 1.9420974834254121 -0.1343416536817825 4.7554725314536226 66 66 66 1.2049239538793823 2 8 20 7 15 7 3 8 14 8 19 8 4 6 8 7 11 7 10 7 9 6 5 6 17 7 16 5
9 0.48463470583106016 -0.24896834982467206 4.8874286863105239 26 26 26 1.0444431560099396 2 9 20 8 15 8 3 9 14 9 19 9 4 7 13 8 8 8 11 8 10 8 9 7 5 7 1 7 17 8 6 3 18 6 12 3 7 1
10 0.093177978931948513 -0.52266110539112209 5.9298270695458202 86 86 86 1.6818940878559194 2 10 20 9 15 9 19 10 13 9 10 9 1 8 12 4
76 0.60310864715433887 0.34594411520926055 4.6585503783480782 0 0 0 1.2914199658673895 8 24 19 25
12 0.66185313000603707 -0.31426162035297811 4.7536933721944425 175 175 175 1.2856142658684713 2 13 20 11 15 11 3 12 14 12 19 13 4 10 13 11 8 11 11 10 10 11 9 10 5 10 17 11 6 6 18 10 12 5 16 8 7 2 1 9
13 0.27361727767052629 -0.32224411791465096 4.9555652017284242 84 84 84 1.1296069699282172 2 14 20 12 15 12 3 13 14 13 19 14 4 11 13 12 8 12 11 11 10 12 9 11 5 11 1 10 17 12 6 7 18 11 12 6 7 3
78 1.9315210746309892 0.18072679101167591 4.7856343545725117 0 0 0 1.27859178257573 19 5 20 4
14 0.20335436371773305 0.30425366692166078 3.3849967624032735 219 219 219 0.88608992485558025 20 13 15 13 4 13
80 0.4100950976732084 0.36770439772279367 4.6474793830033159 0 0 0 1.2414384677855728 8 20 11 20
16 -0.035591743305283453 0.035029233969711172 3.3827483375567597 39 39 39 0.28925768541834501 2 20 20 15 10 14
17 0.5018161010557276 -0.68367948405095147 5.0096221999663415 92 92 92 0.81226076774931522 2 21 20 16 3 23 14 17 4 19 13 16 8 16 9 16 5 16 17 15 6 14 18 14 16 11 7 10
19 0.63272704608062558 -0.51428132603093502 4.9802059601228388 47 47 47 1.2391497342892281 2 23 20 18 15 17 3 25 14 19 19 17 4 21 13 18 8 18 11 18 10 17 9 18 17 16 5 17 18 15 16 12
20 1.282220954042099 -1.2812627222917918 6.4079361919393927 31 31 31 1.5630829085047719 2 24 20 19 15 18 3 26 14 20 19 18 4 22 13 19 8 19 11 19 5 18 1 21 17 17 6 16 18 16 16 13
21 0.32788306582696775 0.35706641296203084 4.8891980813320943 20 20 20 1.3760016701083067 2 25 20 20 15 19 3 27 14 21 19 19 4 23 13 20 10 19 9 20 1 22 17 19 6 17 12 9 7 12
22 -0.52045132094389379 0.21584033083425641 6.281387653987589 28 28 28 1.4759152647549572 2 26 20 21 15 20 3 28 14 22 19 20 13 21 18 18
87 0.50821606621293802 -0.702527699948294 5.0265301681689438 0 0 0 1.5310770875564912 11 16 15 15
25 0.61386440919263863 0.18531490687434979 4.7259016350890075 35 35 35 1.0105720100106137 20 24 15 23 3 31 14 24 4 26 13 24 10 23 9 22 5 21 1 25 17 21 12 12
26 -0.27461783124834976 0.30982699017356446 5.9865539196190021 41 41 41 1.7088851990357872 2 30 20 25 3 32 14 25 19 24 13 25 8 23 10 24 17 22 15 24 1 26
27 0.56141427060570059 0.36056637166427408 4.7614476536372754 40 40 40 1.3292539639798115 2 31 20 26 15 25 14 26 4 28 13 26 10 25 9 24 5 23 1 27 17 23 6 20 12 14 7 16
29 1.5028849298442142 -0.043881652892458864 4.9265153150759495 53 53 53 1.4657526576100461 2 33 20 28 3 35 14 28 4 30 13 27 8 26 11 28 9 26 5 25 17 24 6 21 16 15
30 1.4575029684812315 -0.4284337076436226 5.2008362542296114 32 32 32 1.4199268025930583 2 34 20 29 15 28 3 36 14 29 19 27 4 31 8 27 11 29 10 27 9 27 17 25 18 20 16 16
33 0.17928016698384816 -0.47131383930555093 5.880212229460029 178 178 178 1.4844411153080339 2 32 15 26 3 34 14 27 4 29 11 27 10 26
34 1.9405451981976771 0.17934242871487538 4.7658658854959128 37 37 37 1.5794643887194784 3 5 2 5 13 4 8 4 10 5 9 5 5 5 17 4
37 0.87598436715287054 -0.10460528414854037 -0.29612527896024377 106 106 106 0.19151045090176988 2 35 3 37 4 32
102 -0.40903170939911154 0.33579647034320598 3.3229794240176447 57 57 57 0.61384377421238456 13 14 1 14 6 10
38 2.4983223628722206 -0.95762110995539274 7.248522642653846 161 161 161 1.1694939070636117 2 4 3 4 14 4 19 4 4 4 8 3 10 4 5 4 18 3 16 4
39 2.9889299443054518 0.050674636124792123 5.111125423674352 57 57 57 0.85716052545739607 2 15 14 14
41 1.5553109231106657 -0.49720208968380269 5.1674237794887006 68 68 68 1.500481518546406 15 10 20 10 14 10 19 11 4 8 13 10 8 9 11 9 9 8 17 10 6 4 18 8 16 6
43 0.58563300272163799 -0.47348807730277143 5.0509055179474593 68 68 68 1.5982755197856426 2 22 3 24 14 18 19 16 4 20 8 17 11 17 10 16 9 17
109 -0.46454117960033314 -0.17142949877880648 6.0177414011076271 54 54 54 1.1654061965626559 1 5 14 7 18 5
45 2.5927450858775627 -0.18293151117884779 5.8201342596865171 145 145 145 1.3664904051042732 2 12 14 11 19 12 4 9 8 10
46 0.47787703005859972 -0.51446870518164822 5.0562671365308463 142 142 142 1.2530717345047151 15 16 20 17 13 17 1 20 6 15 12 8 7 11
111 -0.16545218174060131 -0.11947279055524648 5.9120506461090887 0 0 0 2.1314085028292911 9 21 11 22
47 0.39124556862096871 0.25300204854373948 5.2742965550541872 155 155 155 2.1371833980633514 8 21 14 23 6 18
114 -0.4785210812058569 -0.17685739568188968 6.0268596478342227 55 55 55 1.4166965918270806 2 7 15 6 3 7 19 7 8 6 11 6 10 6 17 6 13 6 20 6 12 2
50 1.9365702368492919 0.1883440814630595 4.8011171898034091 92 92 92 2.7146829256155165 14 5 15 4 4 5
116 4.7412767147406978 -0.067240053306134792 4.5872680208543164 123 123 123 0.79176698955871083 4 12 6 8
52 5.1429986246362205 -2.8435206071417065 12.239858626061896 178 178 178 0.41033818225956115 3 17 4 14
122 1.4922660706868329 -0.033582381195705058 4.9294335118826238 0 0 0 0.074231731609644164 15 27 19 26
58 -0.3788174266757619 0.34498851722774498 3.0757345177675375 94 94 94 0.73724801945908069 3 15 13 13 11 12 1 13 6 9 7 5
123 2.3832507382066876 0.19559033558820413 4.2798520777389761 0 0 0 0.19238563889314855 4 17 5 15
59 -0.39583997153262246 0.094011091249057543 3.1800674218447154 70 70 70 0.90098061213183211 3 21 13 15 11 14 1 17 9 14 6 13 7 7
63 -0.44132070144862956 0.14982829365858544 6.054472386918917 0 0 0 1.1780626943567398 13 5 14 6
75 0.6165979587178112 0.20276454604868663 4.6768980888578824 3 3 3 0.80470183871840029 8 22 19 23 11 24
79 -3.5346968721223959 -0.26283542599629539 5.7420998845679438 65 65 65 0.15778586408701992 3 22 9 15 10 15
92 5.497608806319227 -0.18773833892192293 5.7048631536511119 67 67 67 0.54884497711440838 4 15 5 13
95 1.2933879505020303 -1.1377407502958612 6.1802234602611117 0 0 0 1.0865613995572281 9 19 10 18
120 0.32485413173464395 0.26937315671637757 5.1934426916189311 19 19 19 1.0589693762317034 10 22 13 23 15 22 20 23 1 24 12 11
126 10.925690003740513 -4.4963990903959781 51.619030513213232 158 158 158 0.30164123881215799 3 18 18 12 16 9
128 -0.54698108522211619 0.21446395129068899 6.2127130054351802 0 0 0 0.84228249020198787 10 20 11 21
142 23.353962274477858 -1.2432803216102666 1.6252033922681424 196 196 196 0.15126081681841302 1 19 7 9
143 0.49754632923752296 -0.69279619938949089 5.0073296232136242 0 0 0 0.15511851188383829 12 7 19 15
146 0.092194081443924714 -0.053685910729326901 5.440543345218436 21 21 21 1.4394829412199144 1 23 7 13 2 27 20 22 15 21 3 29 19 21 13 22 10 21 17 20 18 19 12 10
147 32.526361768866657 -2.6868781596033444 2.8441160216168484 209 209 209 0.13634702550314831 1 18 7 8
